0.339067,-0.697733,-0.448200,-0.250570,0.132500,0.958988
-0.340067,-0.075240,-0.409067,-0.529317,-0.321428,-0.785180
0.342900,-0.321425,-0.386925,0.874724,-0.187335,0.446950
-0.009715,-0.005146,-0.338117,-0.001036,-0.997999,0.063217
0.143750,-0.004888,-0.341850,-0.005204,0.998099,-0.061405
-0.354567,-0.803167,-0.453133,0.202289,-0.634662,-0.745844
0.368600,-0.795150,-0.441750,0.903359,-0.003911,-0.428867
-0.010087,-0.015490,-0.412900,0.090660,0.821697,-0.562668
-0.138950,-0.010327,-0.410850,0.029373,0.981051,-0.191511
0.340650,-0.402475,-0.426675,0.073233,0.126706,-0.989233
0.271700,-0.057960,-0.223100,0.003061,-0.999032,0.043880
-0.177067,-0.009404,-0.406200,-0.015208,0.979187,-0.202389
0.164600,-0.025383,-0.413671,-0.133493,0.679464,-0.721462
0.009003,-0.067705,-0.382600,0.142753,-0.968405,-0.204484
0.325600,-0.058410,-0.236600,-0.376167,0.917515,0.129091
0.112200,-0.066260,-0.363720,0.003115,-0.997987,0.063348
0.265450,-0.057230,-0.205700,0.003044,-0.999291,0.037537
-0.222300,-0.008741,-0.402500,0.019852,0.901283,-0.432775
-0.336275,-0.525250,-0.392550,0.284498,-0.117769,0.951415
-0.337967,-0.702500,-0.448567,-0.075441,0.047014,0.996041
-0.350625,-0.246225,-0.403350,0.936949,-0.342979,0.067019
0.310350,-0.373400,-0.413700,0.533502,-0.159010,0.830717
0.044935,-0.001579,-0.267700,0.001032,-0.998267,0.058843
0.352400,-0.378450,-0.408850,0.981628,0.145472,0.123468
-0.333200,-0.181100,-0.412000,-0.349327,0.053642,-0.935464
0.310200,-0.428700,-0.415400,0.880536,0.145555,0.451077
0.192150,-0.061205,-0.283600,0.003098,-0.998497,0.054726
-0.317600,-0.392950,-0.423850,-0.548901,0.121490,0.827011
-0.333100,-0.005316,-0.354567,0.115865,-0.988952,0.092458
0.273950,-0.000533,-0.258850,-0.007244,0.998580,-0.052775
-0.007841,-0.063088,-0.309600,-0.001032,-0.998267,0.058843
0.151000,-0.068403,-0.407933,0.240698,-0.709510,-0.662314
0.312200,-0.002688,-0.303900,-0.007201,-0.998902,0.046293
0.346300,-0.054495,-0.162450,0.578269,-0.815649,0.017942
0.195400,-0.067413,-0.386367,0.030204,-0.998801,-0.038536
-0.134700,-0.062570,-0.304000,0.003104,0.998375,-0.056902
0.188850,-0.009502,-0.408300,-0.091069,0.881271,-0.463753
-0.063600,-0.060010,-0.254500,0.001028,0.998623,-0.052451
0.339375,-0.156175,-0.405800,0.835795,-0.513525,-0.194266
0.336900,-0.643700,-0.443333,0.550838,0.311343,-0.774366
0.316200,-0.590300,-0.409700,0.685381,0.301568,-0.662804
-0.057617,-0.020323,-0.413367,0.119285,-0.596423,0.793758
-0.087560,-0.020280,-0.413400,0.041041,0.655240,-0.754305
0.358200,-0.816300,-0.413100,0.575027,-0.622244,0.531184
0.330950,-0.002028,-0.303900,-0.260877,-0.965365,0.003607
0.093713,-0.007516,-0.378667,0.052483,-0.972760,0.225797
0.316150,-0.174350,-0.411650,0.872333,-0.025697,0.488236
0.015740,-0.007819,-0.380100,-0.038755,-0.982961,0.179681
0.267250,-0.066635,-0.413350,-0.089279,-0.683495,-0.724475
-0.312900,-0.455000,-0.407060,0.951235,-0.228675,-0.207026
-0.336325,-0.677300,-0.404575,0.073714,0.376611,-0.923434
0.314725,-0.295025,-0.384025,0.474330,0.056370,-0.878541
-0.182800,-0.061295,-0.284400,0.003091,0.998503,-0.054614
0.159500,-0.060145,-0.261250,0.003079,-0.998730,0.050296
-0.320550,-0.781600,-0.440700,0.982440,-0.098123,-0.158693
0.324100,-0.062097,-0.310000,0.103057,-0.994003,0.036569
-0.335560,-0.073156,-0.366300,0.226143,0.539975,-0.810732
-0.309460,-0.124380,-0.375620,0.762036,0.132722,0.633787
0.017985,-0.059370,-0.241050,0.001022,-0.998844,0.048051
-0.318300,-0.503667,-0.428233,-0.222449,-0.049838,0.973670
0.343000,-0.063115,-0.330950,0.829738,-0.558138,0.004074
-0.258629,-0.006174,-0.359629,-0.003122,-0.997844,0.065552
0.121300,-0.007845,-0.380150,-0.114869,-0.951957,0.283871
0.313250,-0.283225,-0.382325,0.967817,-0.195114,-0.158934
0.319400,-0.456700,-0.429000,0.532679,0.152830,0.832404
0.330100,-0.042640,-0.414700,0.455529,-0.067435,-0.887663
-0.317600,-0.725200,-0.429400,0.980553,-0.036667,-0.192799
-0.353825,-0.595400,-0.403800,0.866415,0.481663,-0.131626
0.298700,-0.008133,-0.393600,-0.049315,-0.977879,0.203274
-0.355400,-0.553350,-0.405925,0.978107,0.059243,-0.199490
0.356900,-0.478200,-0.411700,0.964296,0.111709,0.240111
-0.342300,-0.451400,-0.431600,0.238759,-0.463831,-0.853144
-0.311500,-0.219940,-0.384220,0.880688,-0.059264,0.469976
0.322220,-0.478080,-0.392220,-0.535196,-0.105308,0.838138
-0.203925,-0.067520,-0.413050,0.087588,0.925742,0.367871
0.190900,-0.062350,-0.304000,0.005173,-0.998366,0.056902
0.168400,0.000165,-0.245400,0.003080,-0.998831,0.048248
0.244800,-0.064560,-0.348800,-0.009369,0.998316,-0.057255
-0.061210,-0.068752,-0.404140,0.151923,-0.780675,-0.606189
0.325700,-0.820500,-0.425400,0.732289,0.669649,-0.123788
0.302100,-0.126400,-0.400400,0.960967,0.209594,0.180593
-0.341500,-0.688500,-0.402500,0.282945,-0.011024,-0.959073
0.321675,-0.190300,-0.371650,0.362027,0.134546,-0.922406
-0.308800,-0.154300,-0.382100,0.816244,-0.209020,0.538569
-0.352850,-0.010692,-0.404650,0.779252,-0.608087,-0.151646
-0.181900,-0.062400,-0.304000,-0.003097,-0.998382,0.056785
-0.311550,-0.272967,-0.409033,0.935687,-0.196036,-0.293358
-0.051630,-0.007474,-0.375700,0.019241,-0.988071,0.152794
-0.074080,-0.004239,-0.326200,-0.001032,-0.998267,0.058843
-0.316000,-0.651100,-0.425750,0.977904,0.107557,-0.179262
0.086600,-0.067197,-0.413667,0.172861,0.720508,0.671556
0.318917,-0.379950,-0.386967,0.014438,-0.426574,0.904337
0.349871,-0.051487,-0.330186,0.867480,-0.497427,-0.006704
0.121250,-0.067195,-0.378150,-0.009987,-0.990895,-0.134265
0.116320,-0.004996,-0.335100,0.011518,-0.997892,0.063873
-0.350967,-0.272700,-0.390000,0.797846,-0.004120,-0.602847
-0.327925,-0.650100,-0.440850,0.678178,0.193103,-0.709074
0.039320,-0.022945,-0.413325,-0.001381,-0.658602,0.752490
0.340550,0.001693,-0.206638,0.392563,0.919458,-0.022171
0.345960,-0.068694,-0.380780,0.862589,-0.470638,0.185583
0.300950,-0.058375,-0.234350,0.050151,-0.997687,0.045883
0.167650,-0.061640,-0.289925,0.003097,-0.998382,0.056785
0.236000,-0.001618,-0.281833,0.001030,0.998507,-0.054614
-0.351600,-0.344300,-0.413900,0.701803,-0.241294,0.670261
-0.087550,-0.062680,-0.304000,-0.001032,-0.998386,0.056785
0.347650,-0.327850,-0.411200,0.924618,-0.032603,-0.379498
-0.344400,-0.097867,-0.374467,0.981904,0.095648,-0.163449
-0.309400,-0.079317,-0.402067,0.477740,-0.378009,-0.793016
0.332000,-0.331233,-0.425433,0.043312,0.039087,-0.998297
0.302500,-0.208967,-0.390700,0.978806,0.039247,0.200994
-0.084557,-0.067467,-0.380400,0.051805,-0.988895,-0.139297
0.038193,-0.050100,-0.415033,-0.129807,-0.514854,-0.847394
0.309600,-0.245167,-0.411067,0.786021,0.164446,0.595927
0.356300,-0.496200,-0.420300,0.997665,0.035137,0.058561
-0.226800,-0.042640,-0.414700,0.022045,0.053538,0.998322
0.085365,-0.009547,-0.405300,0.015339,-0.712579,0.701424
-0.015700,-0.038160,-0.414400,-0.039179,0.304588,0.951678
-0.322600,-0.599100,-0.436900,0.499538,0.071363,-0.863348
-0.346100,-0.360000,-0.422600,-0.553354,0.115343,-0.824921
-0.338700,-0.491500,-0.390000,0.112327,0.032252,-0.993148
-0.352150,-0.521850,-0.429450,0.692139,-0.182626,0.698278
0.262950,-0.009368,-0.408350,0.097436,0.475881,-0.874096
-0.314850,-0.244875,-0.380825,0.741079,-0.029531,0.670768
-0.310750,-0.315900,-0.391500,-0.204803,0.093092,-0.974366
0.044190,-0.008245,-0.386067,0.058237,-0.982896,0.174711
-0.038150,-0.059570,-0.245500,0.001024,0.998840,-0.048149
-0.356367,-0.445267,-0.408767,0.972553,-0.181323,0.145819
-0.330900,-0.396200,-0.429150,0.343785,0.045406,-0.937950
-0.326333,-0.580167,-0.398433,0.467756,-0.006625,0.883833
-0.163967,-0.006378,-0.358267,-0.001034,-0.998260,0.058965
-0.105325,-0.006336,-0.354900,-0.003122,-0.997978,0.063479
0.195400,-0.032187,-0.414100,-0.038828,0.182373,-0.982462
0.342633,-0.004017,-0.329233,0.397912,0.917155,-0.022179
-0.163700,-0.014365,-0.412850,0.044045,0.686249,-0.726032
-0.333500,-0.750340,-0.450500,0.224975,0.182377,-0.957144
0.254700,-0.065600,-0.369300,0.019746,-0.998711,0.046766
0.348600,-0.718650,-0.448900,0.403169,0.167867,-0.899597
0.168100,-0.065378,-0.353525,0.005203,-0.997970,0.063479
0.219400,-0.056770,-0.189250,0.003032,-0.999505,0.031329
-0.123500,-0.022590,-0.413500,-0.009298,0.463590,-0.886001
-0.056120,-0.051593,-0.415100,-0.132501,0.334669,0.932974
-0.030945,-0.061595,-0.283950,0.001030,0.998393,-0.056668
0.311900,-0.450250,-0.406025,0.982598,0.029209,0.183434
-0.160533,-0.065590,-0.355833,0.005203,0.997970,-0.063479
0.340967,-0.777333,-0.451933,-0.115237,-0.060471,0.991496
-0.278450,-0.008910,-0.404550,-0.100131,-0.811210,0.576118
0.022032,-0.061448,-0.281200,0.001028,-0.998513,0.054502
0.141500,-0.058360,-0.223100,0.003067,-0.998936,0.046010
-0.330200,-0.772967,-0.411867,0.661801,0.185796,0.726292
0.322500,-0.801800,-0.446800,0.867190,0.188262,0.461019
0.301850,-0.106400,-0.377450,0.732531,0.182749,-0.655745
0.078620,-0.064840,-0.339800,-0.001038,0.997991,-0.063348
0.314400,0.000165,-0.258850,-0.030694,-0.998070,0.053978
0.139250,-0.002160,-0.288050,0.005163,-0.998599,0.052667
-0.285200,-0.026223,-0.413767,0.113805,0.431335,-0.894985
0.222300,0.001489,-0.227500,0.001020,-0.998945,0.045917
-0.205200,-0.061093,-0.281767,0.003092,0.998613,-0.052559
-0.181900,-0.003029,-0.306100,-0.003109,-0.998124,0.061152
0.308020,-0.330280,-0.409240,0.671326,0.107707,0.733294
0.204400,-0.005933,-0.353000,0.001041,-0.997849,0.065552
0.116750,-0.063375,-0.317450,0.003110,-0.998248,0.059086
-0.100665,-0.066240,-0.362650,-0.007158,-0.999095,0.041927
0.260450,-0.062290,-0.308500,0.005163,-0.998599,0.052667
-0.035157,-0.064253,-0.329367,0.001036,0.998128,-0.061152
0.240300,-0.058663,-0.236600,-0.003074,0.998932,-0.046105
-0.349800,-0.328400,-0.389967,0.886844,0.326732,-0.326732
0.292833,-0.009621,-0.406600,-0.242830,-0.883424,0.400744
-0.357575,-0.674250,-0.434125,0.863474,0.479382,0.156862
-0.353700,-0.632033,-0.436767,-0.156291,-0.082321,-0.984275
0.338525,-0.349175,-0.424300,0.033468,-0.076654,-0.996496
-0.350700,-0.338900,-0.390700,0.772176,0.120050,-0.623965
0.324600,-0.743150,-0.414900,0.744277,0.192618,-0.639492
0.092090,-0.060270,-0.260500,-0.001026,0.998734,-0.050296
0.356700,-0.560150,-0.427450,0.862174,0.001337,-0.506611
0.343600,-0.527600,-0.434050,0.663917,0.104519,-0.740466
-0.316850,-0.554550,-0.428100,0.668634,0.213526,-0.712274
-0.311700,-0.070830,-0.363450,0.244490,-0.931323,0.269928
-0.195300,-0.064970,-0.348800,-0.005204,-0.998099,0.061405
-0.322900,-0.725300,-0.441900,0.726264,0.006943,-0.687381
0.163933,-0.067377,-0.383367,-0.071369,-0.995877,-0.055997
0.344500,-0.704133,-0.404667,-0.399457,-0.103665,-0.910872
-0.006337,-0.002164,-0.285250,-0.001030,-0.998507,0.054614
0.333550,-0.090940,-0.368550,-0.500206,0.234042,-0.833677
0.358367,-0.647367,-0.411167,0.929976,0.107253,0.351626
0.189775,-0.057593,-0.208575,-0.003055,0.999123,-0.041757
-0.051620,-0.067830,-0.384850,-0.073711,-0.979993,-0.184881
0.211850,-0.068215,-0.410650,0.015127,0.821007,0.570717
0.164000,-0.004912,-0.335167,0.001038,-0.997991,0.063348
0.350200,-0.017838,-0.282525,0.958538,0.276232,-0.070013
-0.065100,-0.066310,-0.362500,-0.003115,-0.997987,0.063348
0.204700,-0.012750,-0.412700,0.046546,0.602279,-0.796927
-0.074090,-0.008772,-0.398000,0.049205,0.957599,-0.283873
-0.310100,-0.343500,-0.410800,0.993097,0.089458,-0.075869
0.271800,-0.007387,-0.380200,-0.033715,-0.984711,0.170900
0.164025,-0.001809,-0.284725,0.003085,-0.998619,0.052451
-0.327900,-0.154700,-0.368950,0.103126,0.195070,-0.975352
0.314567,-0.301600,-0.419233,0.761264,-0.094975,0.641449
0.344600,-0.008089,-0.359900,-0.562146,-0.812652,-0.153584
-0.111420,-0.002262,-0.284820,-0.005173,-0.998366,0.056902
-0.328750,-0.325175,-0.380025,-0.003450,-0.194345,0.980927
0.280700,-0.056210,-0.178100,0.003038,-0.999437,0.033416
-0.313967,-0.567967,-0.416367,0.963332,-0.043505,-0.264761
0.345175,-0.055152,-0.288600,0.835169,-0.540913,0.099528
0.285500,-0.061710,-0.300000,0.003086,-0.998724,0.050399
0.259800,-0.001377,-0.284333,0.001028,-0.998623,0.052451
0.350100,-0.024570,-0.259000,0.985920,0.125177,-0.110871
-0.110000,-0.066910,-0.413400,0.104851,-0.683749,-0.722145
-0.143700,-0.069135,-0.409250,-0.082958,0.723336,0.685495
-0.209450,-0.009938,-0.407750,0.148189,-0.887694,0.435934
-0.350700,-0.478000,-0.395500,0.906740,-0.148530,-0.394665
0.347180,-0.052626,-0.255400,0.577554,-0.816259,0.012347
0.267250,-0.004559,-0.337400,0.005193,-0.998107,0.061278
0.065143,-0.005334,-0.336600,0.001032,-0.998267,0.058843
-0.242550,-0.007897,-0.386850,0.001040,0.997710,-0.067624
-0.305300,-0.007282,-0.382600,0.044253,-0.954596,0.294597
0.256200,-0.005819,-0.356200,0.005193,-0.998107,0.061278
-0.058365,-0.002495,-0.284300,-0.001026,-0.998629,0.052343
-0.253950,-0.065795,-0.371600,0.013350,-0.999189,-0.037996
-0.353200,-0.424200,-0.396700,0.730687,-0.186133,-0.656849
0.141500,-0.063918,-0.327525,-0.003110,0.998248,-0.059086
0.336200,-0.056330,-0.186600,-0.487867,0.865570,-0.113025
0.116520,-0.001762,-0.278860,0.007229,-0.998586,0.052666
-0.352700,-0.471000,-0.425500,0.972628,-0.052608,0.226335
-0.348750,-0.182100,-0.402800,0.939252,0.066809,0.336664
0.346267,-0.248683,-0.407867,0.872112,0.245517,-0.423253
-0.036360,-0.002339,-0.286120,-0.001024,-0.998739,0.050193
-0.037460,-0.065790,-0.354100,-0.001038,-0.997991,0.063348
-0.333650,-0.306900,-0.422700,0.251789,-0.003580,-0.967776
0.020230,-0.015930,-0.413000,0.055930,-0.681199,0.729959
-0.348100,-0.408000,-0.424900,0.729246,0.104599,0.676210
-0.249200,-0.056070,-0.415400,-0.164543,-0.587223,-0.792524
-0.136080,-0.004765,-0.335140,-0.001036,-0.998128,0.061152
-0.229767,-0.063357,-0.324900,0.007258,0.998463,-0.054952
0.346480,-0.298620,-0.411200,0.892577,-0.033556,-0.449644
0.080865,-0.004775,-0.328450,0.003109,-0.998124,0.061152
0.195400,-0.000535,-0.258800,0.001026,-0.998734,0.050296
-0.330267,-0.425700,-0.386200,0.025776,-0.266352,0.963531
-0.029180,-0.009158,-0.402500,-0.114386,-0.891084,0.439187
0.307700,-0.055840,-0.169100,0.015313,-0.999444,0.029606
0.335100,-0.671400,-0.446500,0.289476,0.062486,0.955144
0.350050,-0.024575,-0.308350,0.978671,0.184955,-0.089415
-0.206800,-0.006616,-0.365525,-0.005213,-0.997827,0.065688
-0.324200,-0.770200,-0.444800,0.463621,0.028220,-0.885584
0.350100,-0.026825,-0.362250,0.989410,0.145143,-0.001108
-0.080820,-0.051590,-0.415150,0.252654,-0.216758,-0.942965
-0.101000,-0.059945,-0.254500,-0.001026,-0.998629,0.052343
0.088735,-0.001954,-0.278925,0.005173,-0.998366,0.056902
-0.332400,-0.431150,-0.431800,0.163354,0.075119,-0.983703
-0.186367,-0.064570,-0.341333,0.005193,0.998107,-0.061278
0.334733,-0.543300,-0.393600,-0.035582,0.005083,-0.999354
0.168400,-0.063210,-0.317500,-0.005183,0.998239,-0.059086
-0.081640,-0.061035,-0.274650,-0.001028,-0.998623,0.052451
0.360200,-0.616400,-0.415500,0.948559,-0.227927,-0.219738
-0.331133,-0.726567,-0.407500,0.574768,-0.273925,0.771107
0.319650,0.002634,-0.212100,-0.026352,-0.998206,0.053758
0.052890,-0.060920,-0.271800,0.001028,-0.998623,0.052451
0.349800,-0.493100,-0.396300,0.877809,0.152347,0.454139
-0.351325,-0.581500,-0.435950,0.794254,0.110109,0.597526
0.146000,-0.006980,-0.371200,-0.046000,0.982506,-0.180460
-0.163900,-0.067810,-0.389300,-0.018124,0.996802,0.077825
-0.354550,-0.052503,-0.358900,0.970158,0.235451,-0.057938
-0.271700,-0.062730,-0.317500,0.005153,0.998605,-0.052558
0.060640,-0.006605,-0.353000,-0.003104,0.998375,-0.056902
0.338167,-0.092097,-0.401800,0.916317,-0.117477,-0.382835
0.353500,-0.447000,-0.419800,0.743113,0.212540,-0.634516
0.011247,-0.000965,-0.261733,-0.001026,-0.998629,0.052343
0.359250,-0.724700,-0.413250,0.783056,0.107248,0.612635
0.356300,-0.572700,-0.429900,0.848529,0.126624,-0.513775
0.322500,-0.624975,-0.437025,0.959740,-0.252013,0.124048
-0.352600,-0.393450,-0.417900,0.794937,0.180875,0.579103
-0.076325,-0.064445,-0.333100,-0.001036,-0.998128,0.061152
-0.313600,-0.244500,-0.412350,0.818396,0.212630,-0.533870
-0.238800,-0.003068,-0.311300,-0.005173,-0.998482,0.054839
-0.232733,-0.066673,-0.380433,-0.060489,-0.983242,-0.171978
0.163950,-0.068950,-0.404950,-0.012363,0.811811,0.583790
-0.111900,-0.012790,-0.412600,0.152585,0.732709,-0.663215
-0.051360,-0.006936,-0.361250,-0.001038,-0.997858,0.065416
-0.233500,-0.064835,-0.351050,0.007272,0.998340,-0.057137
0.302100,-0.146550,-0.400500,0.976376,-0.015311,0.215533
-0.330333,-0.800067,-0.453833,-0.568076,0.530990,0.628760
-0.356000,-0.709250,-0.412550,0.437898,0.183068,-0.880189
0.239667,-0.061063,-0.283900,0.003092,-0.998613,0.052559
-0.336400,-0.575040,-0.439980,-0.318790,-0.058079,0.946044
0.034660,-0.065360,-0.347500,-0.001038,0.997858,-0.065416
0.187900,0.000830,-0.233433,0.001020,-0.999036,0.043880
0.018737,-0.005265,-0.336600,-0.005193,-0.998107,0.061278
-0.334300,-0.379200,-0.383000,0.366299,0.011487,-0.930426
0.139525,-0.061490,-0.285600,0.003097,-0.998382,0.056785
0.316667,-0.009345,-0.407033,0.180707,0.500304,-0.846783
0.321650,-0.677550,-0.410800,0.897510,0.084358,-0.432851
0.181900,-0.058440,-0.227600,0.003067,-0.998936,0.046010
-0.313500,-0.345000,-0.390075,-0.436175,0.189450,-0.879693
-0.349667,-0.304500,-0.388433,0.742406,-0.018176,-0.669703
-0.316200,-0.366000,-0.421200,0.268570,0.498330,-0.824340
-0.319700,-0.695200,-0.414100,0.867568,-0.036889,0.495948
0.345800,-0.197767,-0.388033,0.985513,0.167134,0.028816
-0.362800,-0.774200,-0.422300,0.981417,-0.133218,-0.138107
0.123500,-0.031440,-0.414000,0.050513,-0.332869,0.941619
0.320686,-0.722629,-0.434743,0.910865,-0.196517,0.362912
0.298700,-0.064000,-0.357800,-0.226954,-0.931778,0.283340
0.090593,-0.042637,-0.414633,0.048906,-0.066295,0.996601
-0.359700,-0.699925,-0.431725,0.847760,-0.337548,0.409102
-0.310100,-0.098740,-0.404850,0.164172,-0.249595,-0.954332
0.291950,-0.004363,-0.334050,0.005173,-0.998366,0.056902
0.337250,-0.350150,-0.383800,0.622368,0.049619,0.781150
-0.347100,-0.784000,-0.454300,-0.178871,-0.036242,-0.983205
-0.208800,-0.004515,-0.330667,-0.005183,-0.998239,0.059086
-0.350300,-0.195267,-0.388533,0.987847,0.100080,-0.118918
0.349933,-0.020097,-0.182600,0.962994,0.061521,-0.262407
0.311420,-0.227860,-0.378560,0.925947,0.255384,-0.278212
0.033695,-0.003527,-0.308300,-0.003098,-0.998497,0.054726
0.306420,-0.172640,-0.378600,0.904581,0.049732,-0.423392
0.220800,-0.063810,-0.332400,0.007271,-0.998219,0.059208
0.341067,-0.426967,-0.388000,0.257310,-0.446106,-0.857194
-0.354333,-0.819167,-0.415033,0.532563,0.773905,-0.342706
0.359880,-0.753020,-0.414800,-0.550473,-0.049024,-0.833413
0.312200,-0.005599,-0.353100,-0.240111,-0.964296,0.111709
-0.313225,-0.029203,-0.413925,0.068631,0.394289,-0.916420
0.247150,-0.006576,-0.362150,0.005193,-0.998107,0.061278
0.317033,-0.548467,-0.410000,0.993063,-0.102575,-0.057487
-0.038150,-0.007637,-0.380100,0.021887,0.984917,-0.171640
0.236860,-0.019916,-0.413280,-0.065032,0.367628,-0.927696
0.322100,-0.654900,-0.438100,0.774533,-0.020933,0.632187
0.271700,-0.003014,-0.303800,0.003091,-0.998503,0.054614
-0.306400,-0.123400,-0.400300,0.848374,0.187031,0.495259
0.318300,-0.471500,-0.427650,0.856562,-0.122779,0.501226
-0.354600,-0.021577,-0.354800,0.887778,-0.438885,0.138671
0.060650,-0.009534,-0.406700,-0.175932,-0.696078,0.696078
0.298700,0.001363,-0.232000,-0.003067,0.998936,-0.046010
0.062895,-0.067500,-0.380400,0.054785,0.993965,0.095036
-0.137000,-0.062310,-0.299500,-0.003097,-0.998382,0.056785
0.349700,-0.515800,-0.396700,0.610248,-0.148439,0.778179
-0.053002,-0.061778,-0.287360,-0.001030,-0.998507,0.054614
-0.337850,-0.271500,-0.378000,-0.407641,-0.041162,0.912214
-0.337517,-0.223983,-0.376083,0.642226,0.129637,-0.755473
0.213300,-0.066505,-0.375950,-0.047014,0.996041,0.075441
0.217833,-0.002838,-0.308300,0.003110,-0.998248,0.059086
0.197650,-0.060145,-0.263500,0.003086,-0.998724,0.050399
0.344525,-0.774375,-0.408500,0.064527,0.100753,-0.992817
0.294200,-0.062580,-0.317500,0.003068,-0.999028,0.043970
0.343567,-0.821100,-0.450133,0.073809,0.754010,0.652703
-0.349250,-0.152400,-0.397600,0.635653,-0.608818,0.474643
0.172900,-0.003515,-0.312800,-0.003091,0.998503,-0.054614
-0.035157,-0.067843,-0.384833,0.036209,0.995186,0.091070
0.345433,-0.000635,-0.252833,-0.556065,-0.826195,0.090522
0.340633,-0.618567,-0.441800,-0.310302,-0.252571,0.916472
-0.317000,-0.707200,-0.425250,0.988358,-0.059093,-0.140201
-0.177400,-0.004496,-0.326200,-0.001034,-0.998136,0.061026
-0.309900,-0.004200,-0.330700,-0.007314,-0.997804,0.065824
-0.105500,-0.007960,-0.382400,-0.025955,-0.989661,0.141058
-0.159400,-0.008070,-0.386850,0.073798,0.987483,-0.139396
-0.343500,-0.016000,-0.413100,0.360738,-0.300363,0.882978
-0.163100,-0.061148,-0.280180,0.003091,0.998503,-0.054614
0.069630,-0.069370,-0.407200,0.076467,-0.774768,-0.627605
-0.289700,-0.064480,-0.362300,0.093812,-0.990240,0.103078
0.341500,-0.052701,-0.203171,0.513076,-0.857862,-0.028732
0.321200,-0.696720,-0.430600,0.879461,0.022896,0.475421
-0.337100,-0.197133,-0.414800,0.574964,-0.309103,0.757543
0.089860,-0.003362,-0.303800,-0.005184,0.998360,-0.057020
-0.047140,-0.063510,-0.317400,-0.001034,-0.998260,0.058965
-0.206550,-0.020280,-0.413400,0.116446,-0.599920,0.791541
0.065140,-0.042640,-0.414600,0.029725,0.019475,0.999368
-0.332950,-0.678100,-0.446550,0.499535,-0.170464,-0.849357
0.350150,-0.606900,-0.400800,0.377873,-0.144688,0.914482
-0.336725,-0.102733,-0.407350,0.605946,0.609322,0.511425
0.340525,-0.074410,-0.404625,0.876422,-0.161868,-0.453523
0.360460,-0.676400,-0.432720,0.913804,-0.032965,-0.404816
0.310600,-0.075080,-0.407200,-0.248970,-0.462810,-0.850776
0.119200,-0.010618,-0.409933,-0.015148,-0.576995,0.816607
-0.188625,-0.054950,-0.415300,-0.172185,-0.626266,-0.760357
-0.286400,-0.065940,-0.389200,0.443223,-0.873104,-0.203082
-0.311483,-0.274733,-0.387550,-0.617093,-0.110458,-0.779099
-0.352367,-0.770033,-0.410900,0.693077,-0.101534,-0.713678
-0.311525,-0.153700,-0.406825,0.825562,-0.130971,-0.548903
-0.285200,-0.063120,-0.326400,-0.022619,0.996298,-0.082935
0.345125,-0.003562,-0.281650,0.466469,0.870059,-0.159389
0.271700,-0.059890,-0.263500,0.003086,-0.998724,0.050399
-0.276067,-0.006637,-0.362767,0.007314,0.997804,-0.065824
0.193150,-0.002954,-0.312800,-0.001034,-0.998136,0.061026
0.338500,-0.246500,-0.379550,0.553282,0.040416,0.832013
-0.338200,-0.599020,-0.397380,-0.325992,-0.026638,-0.944997
0.168433,-0.007819,-0.383133,0.089573,-0.967636,0.235917
-0.336433,-0.352333,-0.382433,-0.253013,-0.045666,0.966385
0.343900,-0.273100,-0.384000,0.767687,-0.129687,0.627565
0.305650,-0.104740,-0.404650,-0.500795,-0.170894,-0.848528
0.346271,-0.271014,-0.410600,0.733998,0.321023,-0.598491
-0.107750,-0.064085,-0.328650,-0.003109,-0.998124,0.061152
0.214833,-0.007295,-0.380167,0.039899,-0.973288,0.226093
0.321460,-0.596720,-0.434740,0.676390,-0.035302,0.735697
-0.141500,-0.007791,-0.384650,0.010268,-0.984594,0.174557
-0.324750,-0.623050,-0.402500,0.841590,0.203976,0.500119
0.265900,-0.066010,-0.380233,-0.076022,-0.996853,-0.022485
0.330850,-0.202350,-0.416800,0.439089,0.410138,-0.799367
-0.325900,-0.181500,-0.370900,0.062611,0.219753,-0.973544
0.070528,-0.007906,-0.381920,0.027199,0.977974,-0.206947
0.119000,-0.003390,-0.308300,0.007258,-0.998463,0.054952
-0.322800,-0.536800,-0.396800,0.658512,-0.110985,0.744341
0.312567,-0.470133,-0.406600,0.918346,0.165048,-0.359721
-0.271700,-0.051595,-0.415150,0.060229,0.110231,0.992079
0.357800,-0.527700,-0.412300,0.896855,-0.033515,0.441054
-0.187833,-0.067047,-0.380367,0.038073,0.999156,0.015435
0.217867,-0.051590,-0.415133,0.008554,0.282288,0.959291
-0.280300,-0.006978,-0.372000,0.027262,-0.977871,0.207427
0.341233,-0.101970,-0.379467,0.914613,-0.165394,0.368955
-0.357300,-0.499200,-0.410400,0.986813,0.028653,-0.159311
0.285200,-0.026970,-0.413800,-0.029916,-0.218987,0.975269
0.316700,-0.526180,-0.404260,-0.155810,-0.658032,-0.736693
-0.332067,-0.542000,-0.394500,-0.422438,0.009155,-0.906345
-0.282500,-0.067750,-0.405700,0.462701,-0.728049,-0.505820
-0.349600,-0.301650,-0.413650,0.941881,-0.011318,0.335757
0.316450,-0.142300,-0.369650,0.797530,-0.001368,-0.603278
0.317850,-0.455550,-0.393050,0.716584,0.029564,-0.696874
0.321717,-0.647983,-0.409183,0.774355,0.235267,-0.587388
0.078620,-0.033680,-0.414100,-0.104846,-0.262762,0.959147
-0.315633,-0.298467,-0.383633,0.385351,0.022057,0.922507
-0.343600,-0.063770,-0.339900,-0.558398,-0.761160,0.329890
-0.317300,-0.404600,-0.390400,0.635799,-0.175340,0.751676
-0.330033,-0.120533,-0.367367,-0.376167,-0.129091,-0.917515
-0.363075,-0.745375,-0.426600,0.971956,0.060210,0.227322
-0.006717,-0.066070,-0.358000,0.001038,-0.997858,0.065416
0.112350,-0.007025,-0.363100,-0.007285,0.998086,-0.061405
0.200800,-0.056940,-0.192700,0.003044,-0.999291,0.037537
0.208867,-0.001746,-0.284267,-0.001030,-0.998393,0.056668
-0.348600,-0.576900,-0.398600,0.360784,0.285932,-0.887737
0.120500,-0.067690,-0.414200,0.076746,0.877695,0.473034
-0.183567,-0.006352,-0.355633,-0.005183,-0.998239,0.059086
-0.008964,-0.060290,-0.259000,-0.001026,-0.998629,0.052343
-0.087580,-0.003284,-0.299300,-0.001026,-0.998629,0.052343
0.216333,-0.062833,-0.314500,0.005173,-0.998366,0.056902
0.301600,-0.181700,-0.389700,0.971803,0.130503,-0.196388
-0.004470,-0.067715,-0.382600,-0.010595,-0.975938,-0.217791
-0.338700,-0.464800,-0.433600,-0.278170,-0.091861,-0.956129
-0.011220,-0.007994,-0.380100,0.003375,0.986600,-0.163121
-0.336814,-0.627343,-0.443857,-0.406379,-0.115909,0.906323
0.340750,-0.121250,-0.402400,0.834599,0.297960,-0.463319
0.342250,-0.052815,-0.238800,0.438291,-0.898824,0.003925
-0.310133,-0.374733,-0.406733,0.975120,-0.220265,-0.025003
0.040750,-0.006553,-0.357950,0.001032,0.998267,-0.058843
0.324100,-0.119700,-0.366300,-0.348105,0.021677,-0.937205
-0.351500,-0.067390,-0.402900,0.979052,0.192422,0.066561
-0.165900,-0.068033,-0.410367,0.428728,-0.753969,-0.497718
-0.352880,-0.047666,-0.409760,0.898241,0.064063,0.434809
0.358500,-0.822100,-0.440300,0.447379,-0.890603,-0.081719
-0.085340,-0.006638,-0.356250,0.001036,-0.997999,0.063217
-0.341140,-0.749820,-0.406680,-0.240582,0.003555,-0.970622
0.292500,-0.001593,-0.287075,0.009351,-0.998439,0.055065
-0.005772,-0.061478,-0.281325,0.001030,0.998507,-0.054614
0.141500,-0.003271,-0.312800,0.003097,-0.998382,0.056785
0.335725,-0.824450,-0.429375,-0.179598,-0.977262,0.112713
-0.084563,-0.060370,-0.261967,-0.001028,-0.998623,0.052451
0.146000,-0.005769,-0.353000,0.005203,-0.997970,0.063479
0.244800,-0.008646,-0.400250,0.005543,-0.990023,0.140798
-0.350200,-0.276200,-0.410100,0.877635,-0.003983,0.479313
-0.341400,-0.157000,-0.374050,0.475463,0.042233,-0.878721
-0.135600,-0.061506,-0.285440,-0.003091,-0.998503,0.054614
0.320667,-0.792700,-0.425700,0.909395,-0.074763,-0.409160
0.319520,-0.076318,-0.362080,-0.185989,0.696305,-0.693230
0.195400,-0.001631,-0.281200,0.001026,-0.998734,0.050296
0.345780,-0.008649,-0.386760,-0.458591,-0.831098,0.314596
0.041190,-0.067937,-0.386333,-0.168647,-0.963509,-0.207867
-0.356600,-0.594350,-0.429950,0.994546,-0.001075,0.104293
-0.350800,-0.007926,-0.384650,0.555272,-0.830820,0.037575
0.098840,-0.000382,-0.254350,-0.001030,-0.998393,0.056668
0.353100,-0.569400,-0.401900,0.930771,0.073237,0.358194
0.316140,-0.571440,-0.410100,0.971196,-0.223163,-0.083530
-0.339200,-0.136800,-0.371700,0.294729,0.199745,-0.934471
-0.310600,-0.048607,-0.415000,-0.086257,0.138247,0.986634
-0.309450,-0.175050,-0.405950,0.880688,-0.059264,-0.469976
0.350100,-0.031315,-0.375700,0.979436,-0.078889,-0.185692
0.255100,-0.056670,-0.189900,0.003032,-0.999439,0.033348
0.350400,-0.460700,-0.395700,0.728894,0.162822,0.664983
-0.311150,-0.418200,-0.404200,0.992720,0.055214,0.107047
-0.313150,-0.525350,-0.418050,0.947127,0.093527,0.306927
0.297950,-0.078322,-0.382050,0.832085,0.554265,-0.020630
0.313967,-0.057323,-0.211533,0.063873,-0.997892,0.011518
0.062900,-0.060010,-0.254500,0.001022,-0.998844,0.048051
0.316700,-0.229025,-0.416375,0.473857,0.507110,0.719930
0.320050,-0.422200,-0.427600,0.769207,-0.009702,0.638927
0.326700,-0.767200,-0.446300,-0.553416,0.134296,-0.822007
0.350200,-0.029080,-0.243250,0.932092,0.016622,0.361841
0.337380,-0.061926,-0.306040,-0.353001,0.934871,-0.037498
-0.352200,-0.518500,-0.398500,0.874929,0.336277,-0.348450
0.162467,-0.064393,-0.336833,0.005193,-0.998107,0.061278
-0.309100,-0.062920,-0.326400,0.007516,-0.995395,0.095566
-0.163900,-0.063780,-0.326400,-0.003110,-0.998248,0.059086
0.240300,-0.004566,-0.337400,-0.003110,0.998248,-0.059086
0.208867,-0.058830,-0.238100,-0.003074,0.998932,-0.046105
-0.332200,-0.817400,-0.412150,-0.487845,0.847309,-0.209939
0.340800,-0.449100,-0.428000,0.221078,-0.135750,-0.965762
0.241800,-0.067367,-0.410000,-0.001133,0.984462,0.175594
0.114500,-0.058420,-0.223100,0.005113,-0.999020,0.043969
0.348000,-0.683900,-0.403200,-0.331289,0.316298,-0.888934
-0.354600,-0.024570,-0.326300,0.966397,-0.231679,-0.111360
0.217800,-0.004805,-0.330700,-0.001036,0.998128,-0.061152
0.056160,-0.064870,-0.339800,0.001038,-0.997991,0.063348
0.309300,-0.347867,-0.393233,0.902909,0.355603,0.241459
0.309900,-0.399200,-0.412800,0.762813,-0.158605,0.626866
-0.314600,-0.455800,-0.422900,-0.664375,0.189601,0.722951
-0.312620,-0.478260,-0.413000,0.875042,-0.079804,0.477423
0.023223,-0.041147,-0.414533,-0.126062,-0.505696,-0.853452
0.323850,-0.405850,-0.428650,0.073233,0.126706,-0.989233
0.141500,-0.051592,-0.415125,-0.141197,0.484727,0.863193
-0.185480,-0.007449,-0.380160,0.019284,-0.988017,0.153137
-0.349000,-0.198350,-0.402350,0.798316,0.343964,0.494348
0.316000,-0.578500,-0.427200,0.786306,-0.058509,0.615060
0.344725,-0.575425,-0.438200,-0.368654,0.037777,0.928799
-0.350800,-0.753800,-0.449600,-0.400952,0.259793,-0.878490
-0.113000,-0.067393,-0.380367,0.061313,-0.997144,-0.044102
0.093222,-0.067128,-0.375875,0.012090,-0.992457,-0.121996
0.294100,-0.068040,-0.407800,-0.253099,-0.771872,-0.583227
-0.317733,-0.427333,-0.425333,0.844312,0.060408,-0.532436
0.350167,-0.023083,-0.339800,0.877694,0.465163,0.115224
-0.325600,-0.652820,-0.404220,-0.662050,0.149301,-0.734438
-0.349200,-0.537600,-0.434500,-0.280511,0.210732,-0.936432
0.314667,-0.504033,-0.407033,0.775730,0.091690,-0.624368
-0.314375,-0.005187,-0.353100,-0.101517,0.985307,-0.137346
0.110100,-0.060500,-0.265750,-0.001026,0.998734,-0.050296
0.193150,-0.063900,-0.330850,0.005194,-0.998232,0.059208
0.359733,-0.693167,-0.437100,0.945307,0.283456,-0.161394
0.352540,-0.400980,-0.402000,0.940290,-0.254170,0.226392
0.144633,-0.025217,-0.413533,-0.046372,-0.393496,0.918156
0.357450,-0.578850,-0.410400,0.979457,-0.036804,0.198266
0.318850,-0.000441,-0.272300,-0.134748,-0.987765,0.078506
0.029210,-0.062740,-0.304000,0.001032,0.998386,-0.056785
0.316667,-0.019343,-0.413267,-0.108461,-0.380298,0.918482
-0.337367,-0.472533,-0.389483,-0.055737,0.174327,0.983109
-0.313933,-0.550000,-0.416167,0.990221,-0.072793,0.119011
-0.208350,-0.065810,-0.363600,0.007285,0.998086,-0.061405
0.044932,-0.064677,-0.336450,-0.001034,0.998136,-0.061026
-0.332950,-0.824050,-0.425000,0.066372,-0.965524,-0.251712
-0.367175,-0.800000,-0.428300,0.951658,0.238927,-0.193031
0.342033,-0.225267,-0.410133,0.695314,-0.251834,-0.673140
0.362800,-0.723800,-0.435367,0.953322,0.278217,0.117352
0.329775,-0.153925,-0.369925,0.989078,0.145818,0.021477
0.222750,-0.009483,-0.408050,-0.091071,0.573889,-0.813853
0.141500,-0.060080,-0.259000,-0.003079,0.998730,-0.050296
-0.359333,-0.729367,-0.440033,0.769670,-0.026637,0.637886
-0.116750,-0.004903,-0.332900,-0.003110,-0.998248,0.059086
0.006770,-0.003812,-0.312800,0.003104,0.998375,-0.056902
-0.315100,-0.133700,-0.370700,0.747379,-0.162210,0.644292
0.039697,-0.059283,-0.239567,0.001022,0.998844,-0.048051
0.296450,-0.063405,-0.335400,0.022419,0.978191,-0.206494
0.316633,-0.048607,-0.415033,-0.041949,0.063462,0.997102
-0.317800,-0.570150,-0.429250,0.765107,-0.126280,-0.631399
-0.320900,-0.749950,-0.440000,0.883907,-0.117760,-0.452594
-0.310767,-0.190700,-0.379767,0.974369,-0.167647,0.150000
0.350433,-0.361067,-0.412700,0.951904,0.215296,-0.218004
-0.301600,-0.061953,-0.305500,0.003085,0.998619,-0.052451
0.352900,-0.496400,-0.426300,0.997665,0.035137,0.058561
-0.339100,-0.062060,-0.308500,-0.439553,-0.865512,0.240168
0.359750,-0.664550,-0.412600,0.930253,-0.089938,0.355725
-0.334200,-0.444350,-0.387450,0.372861,-0.105166,0.921908
0.358267,-0.652700,-0.434900,0.823342,0.149833,-0.547411
-0.137000,-0.064420,-0.335400,-0.003110,-0.998248,0.059086
-0.211050,-0.007356,-0.377950,-0.007631,-0.993144,0.116648
0.346667,-0.476600,-0.427733,-0.336993,0.138924,0.931201
0.334800,-0.581300,-0.395800,0.302290,0.244984,-0.921197
0.325100,-0.750700,-0.444000,0.846655,-0.148717,0.510938
-0.137000,-0.007038,-0.366700,-0.003122,-0.997844,0.065552
0.348075,-0.002298,-0.236125,-0.530326,-0.845427,0.063302
0.337460,-0.030094,-0.413720,-0.448533,-0.267895,0.852672
-0.335050,-0.328350,-0.423100,0.107500,0.084382,-0.990618
-0.318300,-0.662200,-0.412700,0.953957,-0.081546,0.288646
-0.354600,-0.047035,-0.384700,0.981437,0.187784,0.038974
0.320550,-0.516450,-0.432150,0.369495,-0.128700,0.920277
-0.333650,-0.397850,-0.384783,0.263552,0.038357,-0.963882
0.295180,-0.005714,-0.359200,0.003140,-0.997533,0.070131
0.090770,-0.061140,-0.277150,-0.003091,0.998503,-0.054614
0.143867,-0.065640,-0.355733,0.003122,-0.997978,0.063479
0.308200,-0.277050,-0.409350,0.917554,0.032911,0.396246
0.216100,-0.061062,-0.282340,0.003092,-0.998613,0.052559
0.337400,-0.366300,-0.426550,0.648643,0.023816,-0.760720
0.321800,-0.618450,-0.407000,0.865728,0.150371,-0.477392
-0.235800,-0.061950,-0.299600,-0.005163,-0.998488,0.054726
0.325400,-0.128100,-0.412700,-0.129488,0.287010,-0.949135
0.346867,-0.224533,-0.387900,0.343394,-0.594022,-0.727474
0.346700,-0.653200,-0.401300,-0.526855,0.155830,-0.835548
-0.351700,-0.401800,-0.393700,0.768552,-0.035255,-0.638815
-0.329367,-0.375000,-0.427267,0.041642,-0.198691,0.979177
-0.354600,-0.031315,-0.386950,0.990255,-0.100763,0.096130
0.298700,-0.059570,-0.259000,0.046261,-0.997301,0.057019
-0.011208,-0.003730,-0.312750,-0.001030,-0.998393,0.056668
-0.339100,-0.051590,-0.415200,0.473112,0.011994,0.880921
0.116400,-0.061000,-0.275700,0.003085,-0.998619,0.052451
-0.187867,-0.067470,-0.408500,0.199127,0.943451,0.265045
0.013682,-0.007095,-0.362100,-0.003109,-0.998124,0.061152
0.265933,-0.061473,-0.293900,-0.005153,0.998605,-0.052558
-0.355000,-0.370500,-0.406900,0.985677,0.067286,-0.154639
0.321400,-0.109700,-0.366300,0.590194,0.026385,-0.806830
0.360000,-0.599450,-0.414400,0.982610,-0.043645,0.180479
-0.348100,-0.081715,-0.383750,0.951660,0.300050,-0.065676
-0.078585,-0.002478,-0.290500,-0.001026,-0.998734,0.050296
0.339250,-0.675950,-0.445700,0.289476,0.062486,0.955144
0.345150,-0.367550,-0.387650,0.663796,0.562966,0.492386
0.041570,-0.002581,-0.285750,0.001028,0.998513,-0.054502
0.341814,-0.751700,-0.406886,-0.275028,0.062103,-0.959428
0.337367,-0.811533,-0.454633,0.422278,0.448164,0.787928
0.168500,-0.000434,-0.263300,0.003085,-0.998619,0.052451
-0.324500,-0.006874,-0.372300,0.253882,-0.963221,0.088029
0.222300,-0.057510,-0.209700,-0.003056,0.999206,-0.039724
0.007808,-0.065130,-0.343200,-0.001038,0.997991,-0.063348
-0.335900,-0.554700,-0.438550,-0.368748,-0.102052,0.923910
-0.334033,-0.250500,-0.376900,-0.466832,0.100136,0.878659
-0.316050,-0.600800,-0.413675,0.820807,-0.037626,0.569966
-0.323100,-0.684700,-0.441100,0.752240,0.117213,-0.648380
0.320900,-0.347233,-0.424417,0.355463,0.045572,0.933579
-0.235600,-0.061140,-0.285000,-0.003092,-0.998613,0.052559
0.066032,-0.002134,-0.282020,0.003097,-0.998382,0.056785
-0.341800,-0.195150,-0.376050,0.808921,0.134574,-0.572308
0.197650,-0.066475,-0.406900,-0.031717,0.839813,0.541948
0.340417,-0.626367,-0.398667,-0.591446,0.415835,0.690849
0.338660,-0.424380,-0.429160,0.623800,0.082498,-0.777218
0.359000,-0.780600,-0.414100,0.751630,-0.020995,0.659251
-0.035905,-0.020960,-0.413200,0.073931,-0.674072,0.734956
0.051670,-0.068780,-0.398300,-0.152979,-0.670988,-0.725515
-0.307900,-0.288600,-0.401800,-0.568203,0.084871,0.818500
-0.068093,-0.003191,-0.306800,0.003079,0.998730,-0.050296
-0.232800,-0.004607,-0.335167,0.001034,-0.998260,0.058965
-0.054620,-0.064143,-0.327867,-0.001034,-0.998136,0.061026
0.312100,-0.063270,-0.335400,0.051255,-0.980995,0.187140
-0.135967,-0.065730,-0.356300,-0.003115,-0.997987,0.063348
0.311275,-0.325250,-0.388325,0.826801,0.051938,-0.560091
0.301800,-0.172267,-0.398400,0.982483,-0.108085,-0.151805
0.363850,-0.803600,-0.449900,0.797066,-0.248011,-0.550615
-0.355100,-0.477650,-0.404350,0.990673,-0.067729,-0.118238
-0.314867,-0.232700,-0.414500,0.536237,-0.048749,-0.842658
-0.040490,-0.060850,-0.270200,0.001026,0.998629,-0.052343
-0.359300,-0.660050,-0.413100,0.354403,-0.401240,-0.844633
0.069913,-0.065723,-0.353600,0.003122,-0.997844,0.065552
0.341300,-0.757700,-0.452500,-0.589980,0.204876,0.780992
-0.329567,-0.500667,-0.434500,-0.222449,-0.049838,0.973670
-0.354600,-0.053670,-0.330800,0.944109,0.329630,0.001244
-0.317600,-0.796900,-0.433833,0.987252,-0.119416,-0.105228
0.294500,-0.060592,-0.279025,0.003086,-0.998724,0.050399
-0.308650,-0.175433,-0.383200,0.990987,-0.086323,0.102437
0.316600,-0.003644,-0.326200,-0.294448,-0.949363,0.109593
0.296900,-0.057315,-0.210200,0.034720,-0.998466,0.043137
0.331350,-0.548300,-0.438750,-0.015992,-0.077828,0.996839
-0.331250,-0.094025,-0.365600,-0.034863,0.349919,-0.936131
-0.080835,-0.008165,-0.384600,0.015125,-0.980825,0.194303
0.312950,-0.248950,-0.379100,0.600124,0.018018,-0.799704
-0.339900,-0.153800,-0.410000,0.241160,-0.657278,0.714022
0.341650,-0.296250,-0.384450,0.895112,0.162356,0.415229
-0.314350,-0.008852,-0.404050,0.046626,0.912543,-0.406315
0.338500,-0.596725,-0.441050,-0.331179,-0.006249,0.943547
-0.267200,-0.063450,-0.330900,-0.009295,-0.998676,0.050605
0.217133,-0.065197,-0.355300,0.009406,-0.998053,0.061660
-0.112250,-0.002922,-0.300425,-0.005173,-0.998482,0.054839
-0.168400,-0.003541,-0.312800,-0.001034,-0.998136,0.061026
0.117533,-0.000614,-0.255800,0.005143,-0.998716,0.050399
0.146000,-0.057510,-0.203700,0.003049,-0.999209,0.039643
0.195400,-0.008452,-0.389100,0.072774,-0.958830,0.274499
-0.161650,-0.053830,-0.415250,-0.038243,-0.161083,-0.986200
0.324500,-0.731850,-0.412700,0.806479,0.100265,-0.582699
-0.317400,-0.532200,-0.429300,-0.562168,0.046263,0.825728
-0.359400,-0.720500,-0.415250,0.758297,0.052838,-0.649765
0.022475,-0.060390,-0.261250,0.001028,-0.998623,0.052451
0.320800,-0.426400,-0.389000,0.672407,-0.508078,-0.538261
0.336867,-0.801667,-0.408600,-0.312705,-0.148842,0.938116
0.157250,-0.058315,-0.223100,0.003067,-0.998936,0.046010
0.314000,-0.061210,-0.292300,0.057959,-0.996232,0.064520
-0.035920,-0.005131,-0.337350,-0.003109,-0.998124,0.061152
0.321100,0.001822,-0.223000,0.251376,0.963397,-0.093150
0.009003,-0.063025,-0.308450,-0.001034,0.998260,-0.058965
0.042690,-0.060030,-0.254500,-0.001026,0.998734,-0.050296
0.215550,-0.060195,-0.265750,-0.003085,0.998619,-0.052451
-0.320100,-0.626500,-0.435300,0.884741,-0.120711,-0.450181
0.272100,-0.012690,-0.412700,-0.017550,0.500853,-0.865355
0.321800,-0.316600,-0.423600,0.030385,0.045054,-0.998522
-0.345200,-0.238800,-0.413300,0.795095,-0.525302,0.303120
-0.348300,-0.095707,-0.385333,0.834162,0.518533,0.187874
-0.357500,-0.680200,-0.410600,0.556430,-0.156636,-0.815997
-0.350900,-0.503000,-0.430250,0.797063,-0.128654,0.590033
0.362900,-0.772600,-0.432900,0.746963,0.421911,-0.513845
0.301350,-0.124400,-0.382900,0.978085,-0.003489,-0.208177
0.116800,-0.056070,-0.415350,0.043229,-0.368105,-0.928779
-0.302500,-0.079273,-0.383567,-0.582032,0.804875,-0.115820
0.094705,-0.006868,-0.361400,0.003109,-0.998124,0.061152
-0.317450,-0.373900,-0.387950,0.896756,-0.087319,0.433825
-0.350100,-0.159400,-0.389600,0.984865,-0.169001,-0.038462
0.233550,-0.067225,-0.389400,0.007401,-0.996990,-0.077179
0.312200,-0.056270,-0.182600,0.040209,-0.999038,0.017527
0.298700,-0.060550,-0.415600,-0.109589,0.345002,0.932182
-0.103270,-0.062135,-0.295100,-0.003097,-0.998382,0.056785
0.235800,-0.062170,-0.304000,0.005163,-0.998488,0.054726
-0.033660,-0.068800,-0.398200,0.039656,-0.945348,-0.323644
0.238050,-0.063710,-0.333150,0.005173,-0.998482,0.054839
-0.137000,-0.003627,-0.312800,-0.003097,-0.998382,0.056785
0.121250,-0.064040,-0.328650,0.003109,-0.998124,0.061152
0.262800,-0.056070,-0.415400,0.193200,0.267192,0.944077
-0.315000,-0.197500,-0.412800,-0.546578,-0.212813,0.809915
0.311800,-0.154700,-0.371700,0.773638,0.061491,-0.630637
0.352000,-0.814200,-0.408900,0.275751,-0.648732,0.709301
0.333200,-0.281200,-0.421900,0.747703,-0.043983,-0.662575
-0.357400,-0.803600,-0.410700,-0.462599,-0.197832,0.864213
-0.313867,-0.502567,-0.405433,0.862359,-0.014845,0.506079
-0.352571,-0.020320,-0.408929,0.740252,-0.212609,0.637827
-0.358600,-0.752100,-0.414400,0.805708,-0.001368,-0.592312
0.192300,-0.065540,-0.358300,0.007300,-0.997948,0.063610
0.315500,-0.210500,-0.416000,-0.550770,0.102637,-0.828323
-0.319000,-0.160700,-0.370300,0.100923,0.164151,-0.981259
0.298700,0.001966,-0.218500,-0.003067,0.998936,-0.046010
-0.059113,-0.009769,-0.405500,-0.020984,-0.756814,0.653294
-0.350400,-0.491600,-0.395700,0.957048,-0.073028,-0.280580
-0.316750,-0.621650,-0.412550,0.993452,0.109645,0.032118
0.015448,-0.065800,-0.353967,0.001038,-0.997858,0.065416
0.300950,-0.002690,-0.308300,0.009368,-0.998195,0.059330
0.065155,-0.000926,-0.258800,0.005194,-0.998232,0.059208
0.331950,-0.535200,-0.393250,0.229073,0.147916,0.962105
0.172900,-0.008872,-0.400250,0.081311,-0.897179,0.434119
0.339300,-0.725100,-0.404500,-0.146761,-0.047380,0.988037
0.321300,-0.150500,-0.414100,-0.593533,0.091424,-0.799600
-0.359633,-0.650467,-0.431467,0.042145,-0.463595,-0.885044
-0.343500,-0.010600,-0.411900,0.360738,-0.300363,0.882978
-0.334267,-0.803133,-0.410333,0.376455,-0.011563,0.926363
0.358300,-0.541100,-0.412300,0.915147,0.038407,0.401287
0.334300,-0.479700,-0.389100,-0.039716,-0.063331,0.997202
-0.334000,-0.235800,-0.419100,-0.173213,-0.276867,-0.945168
0.323300,-0.799500,-0.417350,0.761473,0.088814,-0.642083
-0.248200,-0.065300,-0.361200,-0.015617,-0.998467,0.053099
0.321000,-0.782800,-0.433200,0.924441,-0.205274,-0.321360
-0.002224,-0.064650,-0.335300,-0.001034,-0.998136,0.061026
0.128000,-0.057990,-0.214200,-0.001016,0.999213,-0.039643
-0.331825,-0.771700,-0.451100,0.463621,0.028220,-0.885584
-0.349700,-0.248900,-0.386600,0.893999,-0.299990,-0.332824
-0.350600,-0.181800,-0.391550,0.987405,0.023972,0.156387
-0.271300,-0.009896,-0.409800,-0.100131,-0.811210,0.576118
-0.352933,-0.006323,-0.351633,0.448776,-0.881679,0.145744
0.360100,-0.705850,-0.414350,0.954534,0.038986,0.295541
-0.002247,-0.006113,-0.351800,-0.003116,-0.998116,0.061279
